ply
            format ascii 1.0
            element vertex 639
            property float x
            property float y
            property float z
            property uchar blue
            property uchar green
            property uchar red
            end_header
            0.000000 0.000000 0.000000 0 0 0
-145.475459 196.348095 377.240634 80 86 105
-88.997293 61.137837 329.580116 125 111 99
-142.528892 209.099674 377.416515 104 91 93
-138.130355 205.444670 370.966530 95 86 82
-141.439533 199.234891 381.121254 177 174 176
-78.066146 63.538557 286.439538 157 159 160
-113.478148 168.192649 329.594254 63 80 113
-56.598830 53.852260 186.903524 34 51 54
-92.380208 52.736419 343.631911 59 71 73
-60.933304 64.053088 207.593846 25 33 33
-50.760263 39.384222 238.482261 255 248 241
-58.535123 61.779386 215.683746 132 121 124
-55.345649 96.090919 202.456808 167 168 166
-80.237597 -37.265325 332.185483 93 78 52
-64.931154 63.948554 251.206422 159 162 106
-76.492935 -3.479959 284.239888 255 250 233
-72.516465 37.780187 294.150591 234 220 221
-77.578169 91.344732 309.248543 184 180 109
-65.389740 12.486632 266.746187 34 30 11
-72.203541 87.203676 306.539440 64 66 7
-64.105511 6.893046 272.629833 53 38 12
-72.783643 24.566536 295.757294 192 171 109
-62.405562 -25.035393 256.290436 253 248 245
-63.106984 2.181591 275.954390 102 92 75
-58.225262 72.029102 262.281251 109 115 50
-61.136830 5.837732 274.727011 76 62 39
-67.587566 -59.108704 310.196757 253 250 246
-60.130537 11.857940 275.929093 60 56 37
-61.436009 68.103558 285.133123 65 68 29
-58.214211 16.988657 273.272562 27 25 7
-59.168881 -23.587483 280.328131 127 122 83
-65.351158 -60.648042 312.958360 111 98 72
-65.080613 -60.901153 313.128448 26 18 5
-64.454675 -60.783839 313.390326 20 14 15
-63.697779 -60.204297 313.615584 33 25 18
-61.749876 -61.459094 314.296722 25 19 6
-61.534584 -62.030566 314.187384 93 89 61
-61.534584 -62.030566 314.187384 93 89 61
-61.416584 -64.734954 314.029860 255 255 226
-60.612094 -64.717120 314.509130 53 49 25
-60.612094 -64.717120 314.509130 53 49 25
-60.274935 -63.530260 314.484549 34 33 13
-36.348099 48.627022 189.626276 228 224 219
-59.997791 -62.578917 314.788318 24 19 10
-40.734947 40.297639 213.683867 135 144 124
-40.281698 41.786838 213.065171 179 191 169
-39.767092 48.943755 211.542344 138 136 88
-48.650658 108.143461 258.741951 193 198 189
-58.950943 -62.935907 315.042472 22 13 0
-40.082732 44.824982 214.673138 122 124 95
-57.756305 -48.539165 311.039352 31 21 0
-39.762098 41.177744 213.981724 105 113 83
-39.372429 45.081896 215.112114 118 120 91
-38.247925 42.435515 214.237022 185 195 159
-55.299926 -51.734823 311.000586 116 107 50
-37.769517 48.732096 213.034749 144 144 128
-37.285176 56.041282 211.170578 170 168 104
-47.689357 0.174369 270.117807 68 66 55
-38.002592 40.575433 215.335846 124 139 118
-38.002592 40.575433 215.335846 124 139 118
-47.424558 4.867069 269.548821 114 99 73
-36.937806 41.525230 215.920997 148 152 117
-36.949930 52.653766 214.631963 90 94 83
-29.965937 15.488565 187.115633 255 255 207
-35.831338 49.134108 214.571929 51 51 21
-35.875848 48.202184 216.145992 107 108 46
-35.568947 49.555260 214.948654 147 147 93
-44.576037 0.883718 269.739270 165 152 90
-44.576037 0.883718 269.739270 165 152 90
-44.059983 1.101317 269.881487 13 9 8
-35.288066 41.444087 216.816211 143 158 137
-43.576643 9.558965 268.718457 135 120 81
-43.705559 0.763030 270.343232 140 126 77
-42.996192 17.997938 267.224455 74 61 35
-50.333184 -56.306624 313.561368 14 13 15
-42.780155 18.225697 267.314768 67 56 26
-41.423842 33.709216 260.480666 92 76 23
-42.952505 3.756981 270.625043 20 18 18
-33.147052 71.054751 214.150000 142 139 118
-34.048548 48.766226 217.197418 140 143 74
-33.876631 43.865931 216.737247 141 159 122
-33.928877 54.938352 217.025018 132 131 75
-36.161491 33.391869 231.446910 91 97 48
-32.264423 72.905535 206.537151 200 196 171
-32.598677 69.486940 208.697200 205 205 175
-42.076734 8.034144 269.466233 115 107 77
-42.023304 2.269495 270.518565 34 32 31
-41.920134 2.307015 270.429850 20 18 17
-33.593765 55.292666 216.976166 86 89 39
-41.794914 1.370526 271.127534 12 12 0
-41.439742 16.695675 269.120789 34 24 17
-33.512253 57.145572 218.631744 135 137 85
-33.075783 56.283331 217.298269 67 71 35
-33.075783 56.283331 217.298269 67 71 35
-43.390262 -0.698246 292.490149 20 19 21
-41.145211 -29.944822 242.284989 164 155 91
-40.649232 11.924969 269.945264 93 86 59
-32.790285 42.264396 218.286729 148 156 115
-32.790285 42.264396 218.286729 148 156 115
-39.218128 33.870584 261.245608 82 62 15
-32.146803 50.405967 216.984320 51 53 24
-46.283996 -59.208041 315.287066 65 62 11
-32.581639 52.437663 222.701716 48 53 21
-31.794769 56.717944 218.123937 64 66 44
-39.642552 28.304246 270.451307 115 99 57
-31.537652 43.241790 219.097853 147 151 109
-30.744311 41.911551 206.011724 253 238 222
-32.004291 45.847464 225.928998 143 146 101
-43.645263 -38.287061 284.443331 154 140 104
-30.860266 56.196904 218.648314 114 118 82
-30.674356 60.517484 217.445207 66 71 39
-37.083218 50.477862 263.008952 123 129 82
-42.189306 43.765971 298.905468 68 62 27
-28.763315 78.899640 206.381536 207 204 160
-30.462235 55.880570 219.052601 121 121 85
-30.381268 57.505000 218.526554 115 123 82
-28.725666 78.564066 206.620002 113 109 98
-28.716069 77.348065 207.602048 207 198 164
-28.658879 77.749777 207.220888 205 198 165
-27.951640 84.163773 203.241420 170 161 134
-29.799759 60.472167 217.844224 143 147 111
-28.177890 79.706168 206.260705 222 213 179
-27.878714 79.951215 206.431770 121 116 113
-29.602915 41.975909 219.951582 126 130 81
-27.573696 81.364822 205.596781 95 96 106
-27.877682 77.825230 207.924151 95 92 94
-29.403913 56.564641 219.412160 130 133 88
-29.304564 53.685999 219.147038 126 130 94
-29.304564 53.685999 219.147038 126 130 94
-29.332203 57.989275 219.393802 134 137 105
-29.332203 57.989275 219.393802 134 137 105
-29.167548 60.656488 218.180346 152 152 106
-42.820364 -57.166785 320.975947 57 55 47
-30.749920 39.631349 230.234575 92 102 72
-29.116324 62.244898 218.157911 147 153 96
-35.420710 39.446634 265.620160 151 157 92
-27.259663 82.240444 205.233622 218 202 173
-27.766988 76.575905 209.357738 199 195 171
-27.270088 81.467700 205.751586 186 214 215
-27.372921 80.048293 206.707501 107 103 98
-27.430838 77.660114 208.389592 92 90 96
-27.137980 80.873907 206.303716 76 82 93
-27.345341 78.786999 207.876325 100 98 98
-28.496146 60.467499 218.630981 159 162 117
-26.754269 82.727277 205.273843 172 173 169
-27.047807 77.671999 208.709002 170 210 235
-28.603780 49.648854 220.963502 79 85 60
-28.490332 40.724874 220.492244 168 171 145
-26.475647 82.834381 205.426455 105 110 95
-41.580266 -56.064618 323.150420 24 18 13
-28.190446 51.607424 219.122148 58 62 33
-28.083253 52.634257 219.802022 68 72 47
-26.231912 83.269948 205.351353 215 204 172
-26.121578 83.705872 205.088902 179 167 139
-28.088185 40.850270 220.657802 174 176 140
-26.492900 78.726739 208.388233 181 187 182
-26.243019 80.942619 206.947517 94 97 102
-26.329324 79.887420 207.631087 160 160 148
-26.461002 78.229266 208.743572 101 101 107
-26.461002 78.229266 208.743572 101 101 107
-27.617925 60.866129 219.128275 98 98 58
-27.682939 59.965897 219.775963 158 159 109
-40.565673 -57.047606 322.473264 26 22 21
-40.565673 -57.047606 322.473264 26 22 21
-26.172215 79.593307 208.006001 80 82 82
-26.177633 79.270142 208.186889 93 96 104
-27.710378 42.587313 221.090484 118 122 86
-26.011196 80.150962 207.754374 77 82 81
-25.745633 83.004177 205.909610 209 204 179
-27.615845 40.985405 221.003103 164 175 119
-25.855196 81.391567 206.998968 57 68 95
-27.425870 51.941973 219.721150 51 55 26
-27.516639 59.178883 220.407271 164 160 109
-25.896123 80.662602 207.468915 160 165 168
-27.482024 58.557343 220.510244 144 145 103
-27.482024 58.557343 220.510244 144 145 103
-25.587061 83.388454 205.766034 203 205 193
-27.419981 58.134556 220.514107 84 87 48
-27.419981 58.134556 220.514107 84 87 48
-25.927946 78.769094 208.762383 206 197 154
-25.772455 80.445755 207.725453 169 170 160
-25.769725 80.083233 207.996964 195 195 183
-25.404871 83.715791 205.657530 102 102 88
-25.404871 83.715791 205.657530 102 102 88
-27.254447 57.031530 220.827627 132 128 99
-27.068502 62.330455 219.607949 152 150 119
-27.068502 62.330455 219.607949 152 150 119
-27.016398 61.322677 219.420385 169 170 128
-27.034429 58.732289 220.772767 153 152 108
-25.174862 83.658785 205.871105 200 197 189
-25.174862 83.658785 205.871105 200 197 189
-35.009980 -26.109669 286.567926 24 21 7
-25.341210 80.665058 207.911682 92 97 100
-25.341210 80.665058 207.911682 92 97 100
-25.179651 82.667267 206.621408 83 83 89
-26.893646 58.287501 220.842218 87 90 41
-25.222552 81.819695 207.193780 103 100 102
-25.038049 83.892733 205.882454 102 97 94
-25.038049 83.892733 205.882454 102 97 94
-25.359794 79.711711 208.575153 103 103 97
-25.245073 81.034362 207.741332 89 89 95
-28.357500 37.250850 233.853793 53 53 29
-26.718268 59.906203 220.495439 80 80 68
-25.121319 81.348968 207.585740 60 65 74
-26.740921 57.204771 221.094537 133 130 99
-26.692703 59.464186 220.780444 152 153 114
-26.574919 60.942525 219.833899 164 165 123
-24.861033 84.165865 205.803728 208 199 165
-34.577134 -26.164100 286.865830 156 158 106
-26.483816 61.831927 219.857860 64 66 47
-24.738201 83.957422 205.995202 94 90 85
-24.738201 83.957422 205.995202 94 90 85
-26.395139 61.547798 219.800138 153 158 127
-24.818818 82.955080 206.711650 85 86 82
-26.441282 60.488153 220.232940 100 99 89
-24.859720 82.111990 207.285404 208 234 255
-24.808879 82.682252 206.904411 187 217 244
-24.521469 84.433573 205.858707 107 104 99
-24.752313 81.263679 207.927299 89 90 94
-25.052181 77.341479 210.535669 211 244 255
-24.963804 78.329217 209.921408 203 239 255
-26.347968 44.284940 221.987247 159 172 126
-26.270819 58.554059 221.288610 88 89 63
-38.060516 -61.320823 321.623540 111 97 38
-26.255509 57.275492 221.468544 151 144 105
-24.257787 84.694773 205.859542 193 195 189
-24.723805 78.615975 209.914303 98 99 90
-24.723805 78.615975 209.914303 98 99 90
-24.367125 83.152133 206.926107 157 158 156
-24.292406 83.928204 206.450224 102 102 102
-24.292406 83.928204 206.450224 102 102 102
-24.361020 82.242209 207.581520 192 223 238
-24.128838 84.999007 205.705094 118 116 105
-24.378088 81.750917 207.907724 182 220 238
-24.275351 82.852805 207.222772 175 209 232
-24.342480 81.216371 208.323812 108 110 110
-25.861165 57.803679 221.563578 93 94 68
-24.524246 77.801359 210.650802 105 110 101
-25.811121 45.968467 221.933818 143 154 104
-24.444641 78.530353 210.177851 183 200 213
-23.976333 84.186047 206.487632 103 105 106
-24.140783 82.007951 207.947087 71 75 86
-25.552291 63.463318 220.301247 142 141 120
-25.657082 45.264164 222.295356 142 152 92
-25.578582 41.763315 222.173381 173 174 132
-23.996420 81.451786 208.433104 184 185 165
-25.358036 58.426362 221.673512 150 148 108
-23.980799 79.448432 209.924173 197 195 165
-23.987465 78.577924 210.524249 195 193 169
-25.387383 49.516818 223.172331 98 99 73
-25.097257 61.413431 220.730090 169 167 133
-23.607327 82.157856 208.283854 89 90 100
-23.472045 83.813393 207.220078 208 201 176
-23.472045 83.813393 207.220078 208 201 176
-25.159878 42.177248 222.386122 66 71 39
-25.104976 57.087743 222.035408 152 148 95
-23.338534 84.760606 206.549406 204 193 165
-23.715049 79.711878 210.010099 141 139 129
-24.841841 59.413195 222.027993 161 157 109
-24.841841 59.413195 222.027993 161 157 109
-22.904670 85.325712 206.499290 203 199 175
-22.821897 86.151624 206.017423 122 119 114
-22.821897 86.151624 206.017423 122 119 114
-24.360646 59.125233 222.279525 89 87 47
-24.336126 56.897956 222.465229 69 75 50
-24.112341 62.321264 221.097803 182 181 137
-24.112341 62.321264 221.097803 182 181 137
-23.222700 76.131970 212.970519 168 158 118
-24.026681 63.221717 221.303797 189 186 142
-22.414404 85.869354 206.561685 206 201 170
-22.812870 79.237860 211.042428 143 138 129
-23.754857 64.001983 221.386433 194 191 147
-22.168963 85.945892 206.852031 210 204 167
-22.088504 85.280693 207.251716 113 114 110
-22.088504 85.280693 207.251716 113 114 110
-23.742037 58.187151 222.846961 179 167 113
-23.635817 58.885461 222.600555 161 154 111
-23.645875 58.453888 222.771883 147 141 88
-23.612066 57.584274 222.967577 162 155 105
-23.440258 63.910455 221.566367 91 89 35
-23.440258 63.910455 221.566367 91 89 35
-21.066833 97.488469 199.167585 167 163 152
-23.243201 57.411188 223.135352 72 69 24
-23.110268 59.070671 222.941446 169 165 114
-21.563831 83.886451 208.711219 117 113 102
-22.920448 59.550369 223.056126 108 103 48
-22.920448 59.550369 223.056126 108 103 48
-23.013499 50.264937 224.526000 97 99 63
-22.651438 63.121998 222.153354 96 96 56
-21.247779 84.271121 208.670425 141 142 126
-21.247779 84.271121 208.670425 141 142 126
-21.197592 83.998162 208.945274 194 198 203
-20.767061 85.701716 208.021164 142 146 135
-20.595330 86.078393 207.899833 147 148 128
-20.880494 80.386448 211.788845 114 118 113
-20.850272 80.676162 211.618161 196 197 187
-20.405577 85.904807 208.156991 192 193 183
-21.669747 58.890396 224.053073 173 167 96
-21.622054 56.336147 223.593116 160 151 94
-20.137082 85.732311 208.521271 115 119 120
-20.010388 87.270159 207.490826 111 117 122
-20.043804 86.146694 208.276320 123 125 126
-21.515244 43.196243 224.467754 79 82 56
-21.354111 64.381427 222.760582 191 186 137
-19.873446 86.469769 208.229280 207 204 189
-21.368039 54.784197 223.946428 81 82 40
-19.994271 80.301309 212.630534 109 107 113
-20.006317 80.072665 212.834454 200 225 251
-19.478934 87.416780 207.825327 110 115 116
-19.896650 80.636841 212.497211 205 196 159
-18.042538 43.583614 188.677883 47 34 26
-19.248064 88.008207 207.596040 204 201 180
-20.691755 63.820237 223.238969 111 106 57
-20.661107 63.068777 223.191357 184 180 127
-20.857219 50.978208 225.823021 85 90 59
-19.093820 86.992002 208.445382 204 201 186
-18.942705 88.369465 207.620406 195 196 192
-18.896618 88.022977 207.843757 121 129 136
-20.189857 46.023500 222.337818 120 130 88
-20.325041 59.937370 224.600077 172 175 103
-18.724191 88.800925 207.445812 105 115 139
-18.823868 84.900969 210.211086 194 193 183
-18.648957 84.759831 210.454345 161 163 151
-19.922912 59.416533 225.051284 176 170 95
-18.375933 85.214937 210.370302 124 127 125
-18.144707 86.620450 209.534979 170 167 153
-19.512475 45.125997 225.862837 115 127 79
-19.349381 59.640151 225.452137 161 159 94
-19.225794 54.333240 224.406219 150 148 114
-19.204034 60.876542 225.354552 104 101 57
-18.982200 58.795470 225.630331 67 69 27
-25.202811 -17.440659 299.644113 30 29 25
-17.664318 86.391747 210.100079 144 142 141
-18.978147 46.348894 226.270318 18 20 8
-25.138232 -18.296127 299.729204 30 26 31
-18.719396 60.555363 225.549316 152 153 91
-22.507182 4.168546 271.607876 145 137 107
-24.769610 -17.706427 299.801040 141 142 86
-18.625875 61.979830 225.589299 166 165 107
-18.675499 45.714158 226.534629 48 55 18
-18.368010 65.376335 224.486661 190 189 128
-24.524438 -17.649409 299.950004 144 143 75
-24.153943 -18.714459 299.993491 36 23 1
-24.016760 -18.218176 300.061774 27 21 8
-18.041837 45.611280 226.666331 113 124 74
-17.974173 60.405010 225.996161 98 102 43
-17.884906 65.278888 224.892735 173 169 98
-16.326122 94.407731 205.356097 164 155 142
-17.805600 61.290640 226.145768 99 97 43
-17.805600 61.290640 226.145768 99 97 43
-23.630665 -18.356551 300.138593 164 165 93
-16.002671 96.459442 204.142475 164 160 159
-17.685576 60.181332 226.368952 153 153 89
-21.205899 1.808558 271.836114 150 139 95
-17.146745 62.550879 226.372290 142 143 99
-17.974108 43.173122 237.733841 186 189 157
-20.287596 15.568002 269.040895 73 61 37
-16.901909 53.969669 227.264285 119 120 70
-15.901238 81.512046 215.144730 212 208 183
-16.661574 62.627453 226.726341 160 160 112
-16.568893 62.638044 226.655674 155 157 111
-16.493356 65.141058 225.664020 83 89 42
-15.545230 84.779829 213.010693 180 206 222
-19.763118 2.947444 273.025250 115 110 85
-15.435426 82.845795 214.468670 113 122 135
-15.227497 84.919643 213.160133 105 120 136
-17.325535 39.152113 242.510176 183 186 117
-19.139764 16.319798 268.815184 67 56 42
-16.018817 60.704690 227.371407 148 147 89
-14.798623 86.760616 212.189817 102 100 100
-16.352271 49.758583 234.848619 113 124 86
-14.634553 89.546442 210.274363 100 98 97
-14.634553 89.546442 210.274363 100 98 97
-15.706171 65.382534 225.953531 79 88 45
-14.884983 83.406633 214.568019 202 197 164
-14.777412 85.082632 213.443565 167 178 186
-14.704843 82.467133 215.328526 142 149 164
-14.532512 86.135846 212.864089 164 197 212
-15.463322 62.560087 227.504301 148 151 102
-14.571381 81.683731 216.026974 118 145 155
-14.383338 85.324532 213.580441 97 115 132
-15.332325 53.621089 228.768563 149 139 79
-14.302944 85.694331 213.346100 123 134 142
-15.222251 60.921860 227.804255 153 155 113
-14.347896 83.383381 215.019608 117 120 124
-14.252962 83.947831 214.692187 187 188 179
-15.001202 62.245047 227.866197 83 87 51
-14.850320 60.429972 227.994847 130 133 94
-17.538108 15.769139 269.371605 65 52 26
-17.455706 18.040645 268.537354 159 140 97
-13.891789 85.065746 214.117861 129 134 137
-17.430830 17.039271 268.855023 163 149 101
-13.755839 85.362345 214.026999 211 227 244
-13.618694 87.536168 212.598681 198 196 188
-13.618694 87.536168 212.598681 198 196 188
-14.405352 65.100819 226.864052 171 175 109
-14.361714 68.009239 226.135230 124 129 84
-13.481915 86.208338 213.635206 142 142 154
-13.599814 83.476782 215.528584 205 203 203
-14.257917 65.561116 226.813126 164 172 112
-13.608941 80.967879 217.411470 218 219 210
-13.608941 80.967879 217.411470 218 219 210
-13.291010 88.193500 212.374043 148 148 142
-13.291010 88.193500 212.374043 148 148 142
-16.779160 11.683485 269.678783 174 160 102
-16.779160 11.683485 269.678783 174 160 102
-14.989485 42.083988 241.011691 114 116 97
-13.156232 88.640374 212.188196 205 199 176
-16.721539 13.793971 269.633746 66 48 7
-16.721539 13.793971 269.633746 66 48 7
-16.721539 13.793971 269.633746 66 48 7
-13.039009 88.361233 212.473941 211 209 201
-13.944302 61.359489 228.515768 130 130 100
-12.884374 89.843518 211.444640 109 109 97
-13.809283 67.375225 226.968503 155 164 97
-13.065457 83.693504 215.819287 196 194 200
-13.812354 62.176698 228.311992 138 144 103
-12.808175 89.170218 212.070513 213 208 187
-12.960292 84.494144 215.286899 145 146 150
-12.724373 88.770479 212.402678 145 146 150
-16.122797 11.772434 270.003676 164 151 95
-12.540957 91.853791 210.291052 215 209 198
-16.044612 17.513239 269.140816 79 62 19
-16.044113 14.295053 269.910717 83 74 37
-13.530160 58.953261 228.331280 119 121 79
-13.530160 58.953261 228.331280 119 121 79
-12.516738 88.908631 212.479806 176 177 187
-12.397109 90.451074 211.462951 135 136 150
-12.793536 80.552745 218.327475 124 126 137
-12.661481 83.760846 216.122103 133 131 143
-12.661481 83.760846 216.122103 133 131 143
-12.524448 87.031692 213.829088 205 206 210
-15.752614 15.709448 270.026445 65 50 18
-12.519671 84.303111 215.862989 178 178 184
-12.296990 88.105756 213.246369 109 108 112
-12.179296 89.956844 211.964798 125 121 132
-15.534212 15.417024 270.115924 171 157 109
-12.056269 92.086232 210.532689 117 124 143
-12.056269 92.086232 210.532689 117 124 143
-12.010963 91.955459 210.660052 111 117 136
-15.161496 25.101230 266.113091 78 59 14
-11.936739 92.891848 210.054016 128 131 136
-12.078071 88.137901 213.426423 182 181 185
-12.324001 81.602931 217.939019 191 195 200
-11.999970 89.610851 212.392282 207 208 212
-11.836885 93.446738 209.743404 125 130 145
-11.848297 90.893382 211.562824 192 193 203
-11.802470 91.950226 210.816669 195 194 198
-12.800460 62.063259 229.019737 109 113 71
-14.906657 43.136641 257.533264 113 101 67
-12.722789 62.855768 228.887248 91 98 37
-12.705530 63.421804 229.001474 162 161 105
-11.767408 89.631283 212.560964 164 164 170
-11.945710 84.942836 215.812159 141 140 144
-11.618119 93.012375 210.210681 216 210 197
-12.003722 81.378233 218.379498 88 88 102
-12.590115 61.796105 229.156303 136 140 91
-11.559436 86.691719 214.709115 156 175 182
-11.559436 86.691719 214.709115 156 175 182
-11.393454 91.146338 211.720896 132 140 157
-11.632603 82.359487 217.977619 178 207 221
-11.709055 80.237681 219.478440 211 205 182
-11.455394 86.227691 215.286469 117 114 123
-10.612737 44.470799 202.406406 134 135 119
-11.132720 91.450268 211.714172 191 194 202
-11.941215 69.453746 227.150369 187 189 137
-12.026907 62.106431 229.647803 135 143 102
-11.354677 84.092146 216.876912 139 138 140
-11.192708 85.544163 216.003847 209 204 205
-11.190151 85.542101 216.002703 206 201 202
-11.261710 80.882949 219.499540 121 125 136
-11.175608 82.643127 218.139577 158 156 162
-10.876821 88.102651 214.411283 197 194 196
-11.015195 83.189917 217.865133 143 143 149
-12.267463 41.409472 243.581867 200 194 175
-12.239151 42.298630 242.950535 142 144 122
-11.559214 63.818318 229.756761 144 147 101
-11.557812 63.321733 229.812264 95 95 47
-11.557812 63.321733 229.812264 95 95 47
-11.053215 80.505800 219.813013 131 132 146
-11.408744 64.091617 229.757643 76 78 42
-10.497887 91.391438 212.324667 130 132 133
-10.524035 90.485394 212.920880 201 205 206
-11.294165 59.574771 229.549170 118 119 77
-11.294165 59.574771 229.549170 118 119 77
-10.612480 85.623008 216.474271 152 149 158
-10.318628 91.609317 212.298417 222 218 200
-10.586427 83.178896 218.250918 186 195 205
-10.586427 83.178896 218.250918 186 195 205
-11.130885 64.447999 229.902315 146 152 105
-10.464635 86.122251 216.207433 127 127 133
-10.422050 86.459011 215.951753 156 155 164
-10.513753 83.678722 217.930961 210 210 210
-10.498650 81.719196 219.378686 105 118 140
-10.231338 88.905776 214.320421 124 126 137
-10.231338 88.905776 214.320421 124 126 137
-8.234718 25.157136 170.887256 255 241 235
-10.967159 54.153562 231.571531 103 102 74
-10.894283 49.566603 231.043148 41 52 20
-10.025101 91.691595 212.525749 165 164 154
-10.121036 88.162833 214.987636 118 122 133
-10.031127 89.497638 214.056778 144 148 159
-9.896875 91.472238 212.809062 198 197 183
-10.011878 87.421215 215.616560 152 153 163
-5.738037 31.612656 175.067258 127 122 67
-10.107987 84.120965 217.941880 139 141 149
-12.312250 46.155113 275.591326 198 190 123
-10.506193 66.817594 229.085088 145 146 114
-9.771241 90.011227 213.945079 196 198 199
-10.495400 46.488243 230.772567 188 184 159
-9.663054 91.670209 212.778974 212 208 197
-10.490196 53.114474 231.403351 84 86 56
-10.366023 57.591158 228.993583 149 154 103
-8.353139 -20.998763 256.808090 245 228 202
-9.830334 83.125514 218.866038 135 147 153
-9.827733 82.287306 219.494939 178 186 186
-9.887958 76.950443 223.393750 157 157 141
-10.081792 57.414109 230.639815 157 167 121
-10.134664 54.671454 231.924248 40 42 12
-9.958618 68.107790 229.386306 168 168 114
-9.222861 91.165423 213.521028 101 106 131
-9.305031 88.235080 215.584326 111 117 136
-9.859474 49.899045 231.665587 42 53 20
-9.859474 49.899045 231.665587 42 53 20
-9.003972 91.357142 213.551378 173 176 190
-8.970163 92.235261 212.943316 118 122 133
-8.970163 92.235261 212.943316 118 122 133
-9.012292 88.278258 215.848947 175 176 186
-9.631954 62.796652 231.016684 136 141 86
-9.099615 84.209061 218.612337 206 205 201
-9.562719 63.446921 230.746984 145 142 91
-8.781749 91.102785 213.927245 105 113 126
-9.347314 57.386458 230.086541 161 169 128
-9.308565 68.816227 229.671311 174 169 90
-8.618483 92.310953 213.176274 221 217 199
-9.273174 64.540112 231.105924 143 146 90
-9.083163 73.687148 226.364374 160 154 109
-8.581939 90.565956 214.482665 195 195 201
-8.641408 85.663456 218.015218 114 117 131
-8.478301 90.925765 214.334965 102 110 133
-8.480430 89.859533 215.046072 158 156 162
-8.122956 102.405548 206.196189 175 169 156
-9.063768 64.099938 231.235147 97 103 38
-8.542854 84.677660 218.818045 196 193 202
-8.448133 87.401724 216.878819 196 217 239
-8.448133 87.401724 216.878819 196 217 239
-8.391277 88.200605 216.373825 198 228 245
-8.906647 67.313403 229.912066 158 161 116
-8.697826 76.348162 224.715352 207 202 169
-8.246353 91.668725 213.891530 213 204 190
-8.449204 82.703722 220.282412 83 100 119
-8.560564 75.527412 225.465965 150 151 131
-8.475528 77.592194 224.058056 141 144 142
-8.475528 77.592194 224.058056 141 144 142
-8.709332 60.470587 231.123805 121 124 78
-8.133031 88.716048 216.186643 107 112 127
-8.413876 76.041251 225.208163 139 140 136
-7.965617 88.765132 216.506290 130 131 151
-7.648754 100.359893 208.152056 156 157 161
-8.503642 63.782692 231.441236 185 187 127
-8.503642 63.782692 231.441236 185 187 127
-7.893870 90.293550 215.281701 113 116 124
-8.065987 82.965451 220.406127 126 129 137
-7.964826 86.197823 218.191695 211 208 194
-7.749396 93.597943 212.985778 100 106 119
-7.819854 90.649956 215.113449 220 212 195
-8.079228 78.627747 223.620439 146 147 145
-7.914764 84.323996 219.588447 114 117 132
-7.801635 87.789756 217.156053 102 110 123
-7.586249 96.107984 211.317372 209 203 198
-8.309844 64.361525 231.651425 100 105 44
-7.941724 81.505692 221.617436 213 210 189
-8.222796 67.560458 230.355358 159 160 110
-7.540929 94.851035 212.239027 140 149 163
-8.148619 48.608497 232.333875 126 133 88
-7.293030 101.421666 207.697892 145 152 169
-7.598022 88.409805 216.843462 114 124 141
-7.547709 90.335828 215.547466 214 205 191
-7.508536 90.335703 215.517521 214 205 191
-7.579872 86.865145 217.976999 212 205 188
-8.051321 65.438920 231.702566 152 156 97
-7.502142 81.814641 221.718788 115 117 127
-6.998706 100.704026 208.476782 210 207 203
-7.515882 77.228034 224.848294 195 197 191
-7.148927 89.265275 216.603875 124 124 130
-6.830978 102.033544 207.595158 152 151 160
-7.212047 83.172262 220.895410 208 207 209
-6.790525 98.153555 210.477924 187 193 200
-7.240362 77.151245 225.005150 115 117 125
-7.106624 81.827712 221.888828 184 184 184
-6.678022 100.151217 209.132671 199 200 198
-6.912111 89.420938 216.692972 216 208 191
-6.813407 88.349348 217.430639 208 204 199
-7.155209 55.983055 233.628559 137 133 84
-6.531924 93.396574 214.149117 117 122 131
-6.351287 100.516403 209.158087 149 160 174
-6.943576 65.213138 232.349658 154 157 85
-6.943576 65.213138 232.349658 154 157 85
-6.687563 63.792139 232.890821 147 148 82
-6.394264 64.158601 232.856369 135 135 65
-6.080154 58.546758 231.947660 150 155 116
-5.728883 65.199226 233.144999 99 104 42
-4.836597 105.594993 206.392264 208 206 205
-5.078793 64.266485 233.670926 151 150 69
-4.806292 61.761498 233.296013 146 146 68
-4.617375 74.390411 228.021860 212 204 157
-4.690929 64.764774 233.904552 129 121 38
-4.656941 65.538043 233.789635 107 98 34
-4.561225 64.464968 234.001112 146 147 67
-3.870240 52.155346 204.661751 44 54 18
-4.306711 56.828594 235.486197 148 139 76
-4.103453 65.167123 233.976364 178 169 95
-4.103453 65.167123 233.976364 178 169 95
-3.806001 64.309412 234.469628 61 62 18
-3.612681 65.849620 234.007931 185 179 108
-3.072936 107.681656 205.241680 161 163 164
-3.255128 84.489435 221.783304 121 120 94
-2.780748 106.273735 206.554461 142 145 150
-2.484711 106.787431 206.419253 206 202 201
-2.285312 107.076943 206.344223 148 153 154
-2.270043 106.772089 206.590223 133 136 141
-3.202817 58.841294 241.073895 98 128 45
-2.246892 60.362524 234.278774 168 175 142
11.221956 15.649213 252.476692 255 254 237
-1.820035 107.127941 206.673384 143 147 152
-1.621540 57.097775 236.927438 112 110 76
-1.069819 52.997005 236.521006 159 166 129
0.342327 45.150751 259.024429 91 76 30
2.183492 61.885560 235.418367 54 58 39
2.310077 39.978665 192.264938 159 160 150
2.676163 79.318035 228.618646 200 198 197
5.744722 53.080451 240.407348 132 137 128
5.796531 63.378233 237.688279 196 189 140
5.805106 63.715875 237.717104 138 125 69
5.731353 40.502256 191.862869 175 178 163
11.422255 53.726971 243.538809 68 73 71
10.573609 109.982216 204.272103 200 200 182
14.992720 109.624207 245.503116 97 98 108
